# .PCD v0.7 - Point Cloud Data file format
VERSION 0.7
FIELDS x y z intensity
SIZE 4 4 4 4
TYPE F F F F
COUNT 1 1 1 1
WIDTH 1264
HEIGHT 1
VIEWPOINT 0 0 0 1 0 0 0
POINTS 1264
DATA ascii
2.4949017 -5.777441 2.5641246 72.599998
-2.3239837 5.214819 2.4456835 86.916672
-4.161345 9.1401386 2.4493265 2
2.3641653 -5.6192031 2.5449963 79.14286
2.1579208 -5.3768516 2.5188155 69.833336
1.8965716 -5.0549803 2.4861996 65
1.6239944 -4.7314353 2.4598279 51.76923
1.4835987 -4.5543041 2.4458256 44
1.3775454 -4.4369931 2.4398835 39
0.31707764 -3.1516924 2.4008672 0.23076923
0.051882744 -2.8197899 2.4022646 9.1428576
-0.22011042 -2.487452 2.4103107 19.846153
-0.43508863 -2.2247734 2.4203076 40.25
-2.3139682 2.3596973 2.5504348 40
-3.3281236 4.654108 2.4426911 2
-6.8142991 11.961475 2.494066 2
-0.56601381 -2.0784459 2.4298525 46.75
-0.74432898 -1.861249 2.4425015 43.23077
-1.0064216 -1.537257 2.464102 26.166666
-1.2819963 -1.2228453 2.494591 11.75
-1.4252067 -1.0481591 2.5108092 4
-1.5099397 -0.97145128 2.5237854 3.75
-2.1872792 -0.16764951 2.6220911 2
-2.3066869 0.0019724369 2.6400645 5
-6.8722863 10.267017 2.3811278 2
-2.4643779 0.17038763 2.6686351 11
-2.6280875 0.3810209 2.5039895 11.190476
-2.8745046 0.68097925 2.3512256 14.666667
-3.1295838 0.98608589 2.3948202 21.888889
-3.3338952 1.2316957 2.4313157 28.6
-3.4740319 1.3930671 2.4574234 42.5
-3.6745677 1.6369526 2.4956219 55.333332
-3.9525094 1.9647832 2.5507338 76
-4.2079988 2.2680762 2.6033151 80.571426
-4.1836877 2.6772614 2.5954123 72.300003
-4.363009 3.039485 2.6353261 75.333336
0.97024584 12.594254 2.6433249 2
0.76198483 12.841574 2.7123623 2
-2.9507775 16.897276 2.5758688 2
-0.64558077 10.694679 2.9783688 1
-0.71541262 10.617929 2.977128 1
6.2684445 -8.2052612 2.8943064 48.5
6.0799236 -8.3564186 2.9416549 50
-7.7759776 21.745247 2.6631794 6
5.7737436 -8.6184635 3.0244603 47.285713
-7.9316411 21.529804 2.6556301 6
5.3517466 -8.9658012 3.1373358 57
5.4959831 -8.8477211 3.0986156 49.400002
5.1115098 -8.8685455 3.1221149 73.166664
4.8500876 -8.5486889 3.0490053 87
4.5860434 -8.2208939 2.9766943 81.5
4.3993602 -8.0026989 2.9308085 82
-3.5454717 9.7229252 2.8974254 2
-3.4690194 9.8798523 2.9019122 2
-5.614429 14.648603 2.5900078 2
4.2606192 -7.8359008 2.8965724 74
4.1486063 -7.7042012 2.8702848 60
-3.902617 9.4905825 2.9366212 2
-8.9680538 20.688047 2.6603739 6
-2.4529748 5.0965414 2.6630583 49.666668
-4.1367688 9.272089 2.9566388 2
-3.6835074 7.1792407 2.670435 2
-4.42909 9.026556 2.9865887 2
-9.5848217 20.203611 2.6686246 6
-9.5243931 20.329702 2.6737356 6
-3.3122125 4.6185417 2.8523633 1
-2.7134795 0.49046588 2.7128747 16
-2.8853202 0.68817091 2.7465315 29
-3.1387172 0.9934715 2.7976401 44
-3.3306346 1.2223656 2.8381429 59
-8.6172352 12.774479 2.7772851 2
-8.6813774 13.020716 2.8036721 2
-3.4626079 1.3830378 2.8668168 65.599998
-3.6646609 1.6259176 2.9121654 73.875
-3.9464412 1.9535165 2.9780416 85.444443
-4.1782813 2.236048 3.0339117 76
-4.1752601 2.6855681 3.0306404 79.699997
-4.3863616 3.0674109 2.8612859 80
-4.6588578 3.3747382 2.7031555 51.666668
-8.4788094 12.25703 2.7222373 2
-8.6020355 12.610727 2.76331 2
-4.9865146 3.7215419 2.7798259 2
-5.2235093 4.0010285 2.8369517 2
-5.95151 4.3213577 3.0035105 2
-6.0404029 4.3844094 3.0244861 2
-8.8023243 9.9754267 2.6182384 2
-10.350319 10.032631 2.8307073 2
-1.654573 13.996696 3.2176073 2
-7.6914477 23.393091 2.7992675 7
-4.3140292 8.1250257 3.3702538 1
-4.5583014 8.9093285 2.9996946 2
-4.4721045 8.9980717 2.9919562 2
-3.8734174 6.9902163 3.1546538 1
-3.9895024 7.1306491 3.1951137 1
-4.214314 7.4245052 3.2759428 1
-4.3346381 8.0833292 3.3705735 1
-4.7281985 8.7238588 3.0146136 2
-5.0556426 8.5668211 3.0640512 2
-4.401897 5.5754251 3.1762958 1
-5.3311229 7.5916529 3.0373166 2
-5.5515447 8.5326509 3.1591589 2
-4.4733291 5.5501385 3.1925461 1
-4.4230418 3.6393602 3.1034589 1
-4.3382497 2.4402428 3.0734723 92
-4.4020219 3.0928116 3.0904951 82.666664
-4.563746 3.4231358 3.1360006 65.222221
-8.0121117 10.947117 3.2165356 4
-5.2689233 4.1075826 3.331279 1
-6.1796803 4.5297995 3.0586662 2
-6.4008117 4.7939873 3.1143873 2
-6.633472 5.0959535 3.1746416 2
-6.7940736 5.2835026 3.2160082 2
-7.1371446 5.7101707 3.3067098 2
-7.2783227 5.8787484 3.3441961 2
-7.401485 6.0192518 3.3768492 2
-10.855547 10.714888 2.935216 3
-2.1075425 16.0898 3.6377459 2
-1.0165496 12.735542 3.423444 1
-0.98784685 12.810852 3.4336646 1
-1.8907208 13.638344 3.7395327 2
-7.4086595 21.293447 3.4638865 4
-4.3357453 13.382591 3.5158157 2
-6.0886941 5.3926072 3.588398 1
-6.2880282 5.9012089 3.6651573 1
-5.9558406 4.3322954 3.5131655 1
-6.1410251 4.5087729 3.5658848 1
-6.2594008 4.6772909 3.6016757 1
-6.2679582 4.6288252 3.6021805 1
-6.4274898 4.834456 3.6501145 1
-7.5377421 6.197247 3.4141905 2
-7.7396798 6.4237437 3.4682329 2
-7.9387593 6.6192331 3.5204201 2
-1.1315742 14.70577 3.8368912 2
-1.6079173 13.988653 3.7631624 2
-2.6835027 16.540155 3.788693 2
-3.0101571 16.416449 3.8088076 2
-3.4606519 15.950001 3.7892439 2
-3.666472 15.783178 3.7898154 2
-4.0322509 15.555323 3.8040855 2
-4.3183131 15.298996 3.8044477 2
-4.6879601 14.973852 3.8087325 2
-4.9490199 14.716991 3.8095417 2
-3.9825931 12.116932 3.8431456 2
-5.3167796 14.049509 3.7693365 2
-5.5126615 14.356276 3.84497 2.5
-5.8398499 14.024416 3.8509028 2.3333333
-5.1297669 11.009941 3.9090831 2
-5.3300261 10.850981 3.9297347 2
-5.6328626 10.598696 3.9611895 2
-5.8562589 10.447483 3.9902761 2
-6.6371646 9.7445621 4.0804415 2
-6.7096648 9.8160648 4.1048455 2
-6.8144832 9.6153164 4.1063356 2
-7.4735417 6.3325968 3.985563 2
-3.8053536 15.748146 4.4577527 2
-3.8911872 15.705828 4.463728 2
-7.3344264 9.2156982 4.1842642 2
6.8966374 -10.403502 -1.5087848 1
6.6635385 -10.596559 -1.5311854 1.2222222
6.2783394 -10.601892 -1.5343159 1.6666666
6.0354586 -10.995036 -1.5801626 1
5.9555945 -10.903728 -1.5709349 1.8
10.905883 0.64312911 -1.2317185 44
10.853569 0.70794463 -1.2120949 41.333332
4.8890018 7.0233698 -1.3293532 10
4.6412644 7.2544765 -1.4178444 11.666667
4.3977141 7.1282349 -1.4186451 11.166667
4.1607122 7.7280397 -1.3902973 9
4.0803251 7.7568474 -1.405586 10.363636
3.5749876 8.6126986 -1.4039949 4
4.0686789 6.372406 -1.2916362 1
4.0688314 6.9243336 -1.4178249 9.4761906
3.7717435 7.5708694 -1.4049337 9.7619047
3.3964317 8.4840078 -1.3993752 7.9411764
3.858228 6.2380552 -1.299655 103.90476
3.8557184 6.7643414 -1.4151152 5.5
3.5118763 7.401226 -1.4056234 10.75
3.0726929 8.2839947 -1.3999767 9.5625
7.441721 -3.334419 -1.3949145 2.2307692
7.1137824 -2.5059049 -1.4079037 2.5555556
3.5472894 6.007762 -1.311444 33.04348
3.2569158 6.6923051 -1.3094039 1.75
3.1649122 7.1316328 -1.4048848 10.071428
2.5968785 7.9390278 -1.4002005 9
2.7921162 8.1197519 -1.4052869 9
2.1932354 8.9232769 -1.3350737 71
7.5241475 -4.5029039 -1.3824929 1.7692307
7.0862408 -3.3317564 -1.3902825 3.8499999
6.7438898 -2.4996431 -1.4063073 3.7894738
3.3619375 5.6884451 -1.2884928 9
3.2250905 5.8415108 -1.3454111 16.214285
2.7503858 6.6499443 -1.3868148 7.8333335
2.8836412 6.8570728 -1.3999732 9.666667
2.3998904 7.7442226 -1.3953506 9.9411764
7.140326 -4.5164108 -1.3814707 3
6.7616057 -3.3272536 -1.3893558 4.6999998
6.5389128 -3.3258784 -1.3914983 1
6.4518943 -2.5647218 -1.4273256 1
6.2306681 -2.4332917 -1.4007323 4.5833335
2.8339882 5.6464906 -1.3967944 11.083333
2.5054636 6.3814368 -1.386814 9.666667
1.9593472 7.2754354 -1.387403 11
2.0414348 7.3785982 -1.3905058 7.3333335
7.3979797 -6.3362751 -1.3843135 2
6.9107294 -4.5251122 -1.3825717 3
6.7150464 -4.5079365 -1.380457 2.5714285
6.1812348 -3.2745502 -1.3884221 2.347826
5.9444585 -2.3592675 -1.3937355 9.5
5.704649 -2.3013542 -1.3927882 8.9473686
2.815475 4.8314724 -1.2797478 6
2.6139936 5.2716856 -1.3889962 11.6
2.7018781 5.4450569 -1.3940954 12
2.2083082 5.9523177 -1.3789231 8.7692308
2.3807955 6.1977158 -1.3812989 6
1.809123 7.0949726 -1.3850157 11.058824
7.2914996 -7.3213348 -1.166371 79
7.0613914 -6.2821064 -1.3753308 2
6.8410454 -6.2853813 -1.3760506 2
6.259397 -4.478632 -1.3810836 3
6.0483093 -4.4465132 -1.3796525 3
5.9084096 -3.2249806 -1.3865111 5.3333335
5.6805859 -3.171078 -1.3849953 7.6315789
5.4070034 -2.214895 -1.3919723 8.7333336
5.1511698 -2.117213 -1.3896116 9.2666664
2.3755765 4.5196428 -1.3529747 8.8000002
2.4467473 4.9177418 -1.3811039 11
1.9569182 5.4749279 -1.3671591 7.75
2.0565667 5.7104216 -1.3763407 9.5714283
1.4417214 6.5732684 -1.3751528 6
1.6095829 6.8348112 -1.3810474 10.375
7.1155376 -7.3043127 -1.164348 50.5
6.5891819 -6.2688608 -1.375186 2
5.7981782 -4.4066038 -1.3796802 3
5.4177709 -3.0857303 -1.380379 7.1428571
5.1413517 -2.9405062 -1.3675433 6.590909
4.9024873 -2.0050647 -1.3869133 5.9333334
4.6297588 -1.8597882 -1.3832823 3.5789473
2.1987906 3.8997841 -1.3440377 12.666667
2.2231197 4.1278896 -1.3558156 11.5
2.2830195 4.4030504 -1.3646116 10
1.688684 4.8406396 -1.3555878 7
1.902854 5.3030319 -1.3580263 6
1.2209177 6.069756 -1.3541714 6.5
1.2498674 6.3107996 -1.3762149 8.625
6.1963129 -6.2279015 -1.3735552 2
5.9622302 -6.1792278 -1.3702891 2
5.4629631 -4.3365583 -1.3788652 5.25
5.2176447 -4.2728662 -1.3782436 6.4166665
4.8436747 -2.8413703 -1.3688667 3.125
4.5836 -2.7599118 -1.3745791 2.8888888
4.3915396 -1.7392457 -1.3852479 1.6666666
4.1204453 -1.5884426 -1.3896997 1
3.8998606 -1.368995 -1.3759604 1
2.0036488 3.3096666 -1.3642693 10.272727
1.5581398 4.3895702 -1.3460313 7.8461537
1.6171131 4.6588469 -1.3549657 7.6666665
0.39214754 7.3675156 -1.3589281 11.666667
8.5048132 -13.081126 -1.2473329 3
8.3203363 -12.857412 -1.2294546 3
7.8678927 -11.558428 -1.1294848 3
7.7543693 -11.3601 -1.1141735 3
6.9326138 -9.127183 -1.3669454 1
5.6654863 -6.1367111 -1.3706129 2
4.9152288 -4.1843452 -1.3780178 6
4.6646795 -4.0942287 -1.3768312 3.5
4.3301659 -2.6574495 -1.3779205 2.5
4.0611286 -2.4816048 -1.372174 3.6363637
3.7004173 -1.2465532 -1.3835421 1
1.8739653 2.691715 -1.3859866 4.4444447
1.9143233 3.0708506 -1.3797261 9.2941179
1.4041677 3.9111421 -1.3493134 9
0.7935214 5.3339357 -1.3590881 6.9230771
8.1113482 -12.571229 -1.2069122 3
5.3740988 -6.0799761 -1.3699654 2.5
5.1305327 -6.0264206 -1.3699541 3.3333333
4.4290633 -4.004899 -1.376778 2.9166667
4.1693902 -3.8077414 -1.3620102 2.5384614
3.835825 -2.3601215 -1.3745604 9
3.6408913 -2.1910584 -1.3675785 4.0999999
3.3441837 -1.9599698 -1.3657973 1
2.5291281 0.086184263 -1.3934695 1
2.4316645 0.31796765 -1.3871329 7.0434785
2.2573857 0.68434381 -1.3881295 8.521739
2.1476336 0.93551302 -1.3909572 4.625
1.8120704 2.4462605 -1.4031175 1
1.1864381 2.9788079 -1.3641412 9.125
1.2354503 3.2734449 -1.3605601 8.681818
0.84913921 4.5411253 -1.2887857 11.5
0.5696125 4.7021308 -1.3528118 6.625
5.9296775 -8.455862 -1.3001667 46.5
5.7170715 -8.4037838 -1.2975112 82.555557
4.830225 -5.9352512 -1.3676845 2.25
4.5778823 -5.8564253 -1.366854 4
3.91098 -3.7125967 -1.3665757 1.8888888
3.6268864 -3.5573957 -1.3659744 3
3.1701689 -1.8640616 -1.3739308 1
3.1089382 -1.7748964 -1.3678234 1
1.1949553 2.1515684 -1.3623432 1
1.1739364 2.3976164 -1.3645588 2.6666667
1.1780128 2.7525799 -1.3635173 6.8666668
0.37749052 3.9401913 -1.3472626 8
0.47678614 4.255724 -1.3433836 4.4000001
5.3910503 -8.3973074 -1.3024182 77.428574
4.3169317 -5.7497454 -1.3637474 3.5555556
4.0529966 -5.6546011 -1.3637843 4.1111112
3.4110217 -3.4365551 -1.3666461 5.3333335
3.20803 -3.300112 -1.3656445 6.7333331
2.9109492 -3.0899951 -1.3650408 5.75
1.866158 -0.24778533 -1.3719524 1.2
1.7300906 0.025673389 -1.3710808 3.2
1.6300044 0.23769331 -1.3713493 4
0.3002162 3.462738 -1.3444649 8
0.35922718 3.7278013 -1.3422701 7.8333335
-0.6213274 5.5990744 -1.354512 6
6.0775771 -10.989058 -1.0906889 46
5.9648371 -10.887684 -1.0839723 27
4.9384098 -8.590641 -1.3332617 21
4.7136116 -8.3444262 -1.3119093 35
4.1757307 -7.089263 -1.1928505 56.200001
4.0718026 -6.9331827 -1.1799365 58
3.7785163 -5.5490875 -1.3644121 2
3.496475 -5.4192734 -1.3637248 2
2.7096229 -2.9472573 -1.3668041 2.6666667
2.4385667 -2.713743 -1.3660175 1.2352941
2.2168808 -2.5114715 -1.3661991 1
0.1052947 2.928385 -1.3694612 7.5
0.095568657 3.1940691 -1.3760049 8.4285717
-0.81460142 5.0349283 -1.3497097 4.375
-0.71078587 5.3412137 -1.3514069 7
4.2779489 -7.9628124 -1.2831753 39
4.1570711 -7.8216562 -1.2718962 89
3.9040959 -7.1289959 -1.2069926 27.666666
3.9212871 -6.7977753 -1.1713147 40.200001
3.6997638 -6.636508 -1.1632681 32.166668
3.2706966 -5.3152809 -1.3644116 2
2.9968276 -5.1717062 -1.3644918 2
2.0531988 -2.3856142 -1.3711584 1
1.9366951 -2.2181451 -1.3653129 1
-0.70858192 3.4375548 -1.2664615 2
-0.91590786 4.4540749 -1.3368856 6.6363635
3.4423513 -6.9171572 -1.2035747 100
3.2469792 -6.6923361 -1.189105 72
3.0183594 -6.4416113 -1.1744373 85.85714
2.7623119 -5.0566702 -1.3667961 3.8
2.4986377 -4.8631811 -1.3630054 6.0666666
2.2726464 -4.7033644 -1.3616605 2
1.5624561 -3.0352633 -1.2379639 5.6666665
1.069077 -1.0507548 -1.365628 1
0.92214155 -0.73485065 -1.3609776 1.5384616
0.74136686 -0.39158845 -1.3633105 2.6470587
0.6544714 -0.19516134 -1.3633583 3
-0.81130219 3.0050328 -1.2748778 19.5
-0.85393143 3.1543479 -1.2840949 4
-1.109251 4.0238528 -1.350696 5
2.8894188 -6.2965755 -1.1662863 89
2.7433805 -6.1211233 -1.1564699 82
2.0938964 -4.5777159 -1.3619182 3.8333333
1.7714643 -4.2768087 -1.3556914 6.1428571
1.6716118 -4.016058 -1.3352 15.6
1.4406385 -3.6463368 -1.3169513 2
1.4775295 -2.9446714 -1.2377614 7
1.3253489 -2.7492278 -1.2349843 3.8
1.0655622 -2.432411 -1.2344232 2
0.90935707 -2.2629163 -1.2374911 2
-1.3826227 2.8884618 -1.365463 4
1.4715014 -4.0209446 -1.3555084 2
1.2096205 -3.6304243 -1.339646 2
-1.4032307 2.262208 -1.365162 2
-0.39011717 -1.7055871 -1.3617235 2
-0.55920219 -1.3913319 -1.3633168 2
-0.73924589 -1.0371981 -1.3663918 2.1538463
-3.2060862 3.7551804 -1.318983 4.6666665
-3.1728687 3.8393402 -1.3167665 4
-3.5714607 2.9411418 -1.3474387 4
-3.3101768 1.916481 -1.3084813 14
-3.5738792 2.8683608 -1.3468895 6
-3.6335373 1.5178746 -1.3497727 2
10.940641 0.61024928 -0.98611319 31.75
10.805662 0.77170253 -1.0289537 39.714283
10.689635 0.90908003 -0.99335051 40.666668
10.545785 1.0820116 -0.94625449 42.756611
10.219645 1.4385824 -0.91813391 46.676472
10.007157 1.7294989 -0.90821761 61.76923
10.125726 1.2856289 -0.97754174 18
9.8607626 1.9019492 -0.8587867 63.5
9.7833977 1.992866 -0.83322257 69.875
6.1543856 6.3381557 -0.90100503 58.666668
5.8890467 6.5557308 -1.0380707 31.78125
5.7143478 6.7952609 -1.0342693 25.666666
5.5176764 6.4675388 -1.0446098 43.889164
5.540029 6.8056846 -1.0498555 9.875
5.349793 7.2084837 -0.98861217 6
5.2498817 7.4194317 -1.0365852 28
5.1618285 6.7054691 -1.0618428 6.6333332
4.8618603 7.0869122 -1.0869001 34.119049
4.7535262 7.2976379 -1.1442287 35.25
4.4607439 7.5589342 -1.1263754 32.666668
4.9565334 5.3862152 -0.9218483 21.25
4.2996426 7.6262856 -1.1538576 14.777778
4.0591698 7.9511585 -1.1312728 10.666666
3.4212167 9.0629721 -1.2444168 76
3.2922754 9.5198221 -1.0536413 86.333336
4.0827608 6.3993115 -1.1270934 19.888889
3.2790112 8.9875326 -1.2447417 72.5
2.939157 9.2702789 -1.1808475 36.325001
2.9892616 9.7080488 -1.0949548 52.75
4.0536089 6.355794 -1.2061354 8
3.828336 6.6157532 -1.1185197 46.75
2.6768608 8.7919054 -1.2697973 11
2.7119827 9.0825405 -1.1746125 48.133331
4.2227664 4.756937 -0.9390924 17
4.2072816 4.7684441 -0.94445002 20
3.7152255 6.0207791 -1.2808939 7
2.5725145 8.7195568 -1.2695951 4
2.4560618 8.9076328 -1.1729513 80.25
3.4116652 5.6883469 -1.2779849 20
3.3123617 5.7936687 -1.0621718 21.416668
3.1237423 6.5452423 -1.1127942 1
3.1817567 4.5886827 -1.0065978 10.166667
3.066555 4.9341745 -1.0729297 7.9583335
2.6745701 5.719614 -1.0685579 10.377777
2.5505233 5.858119 -1.106614 1
3.2170675 3.383008 -1.040671 12.214286
3.2510295 3.5252917 -1.039488 11.111111
2.9764194 4.5057607 -1.0431988 4.4043803
2.9010048 4.8355293 -1.177316 6.1285715
2.4582429 5.4200168 -0.88720179 24.055555
8.3212576 -9.256505 -0.95811009 2
7.3409734 -7.2871952 -0.80509043 66.800003
7.1190777 -6.8388796 -0.94193614 64.5
2.7096958 3.5375619 -1.0286708 5.4545455
2.3064914 5.2905378 -0.89700162 23
1.9906693 6.0145502 -1.2175831 30
1.6869993 6.3964825 -1.0871322 5
-2.7229528 16.39378 -1.0920947 2
7.1352615 -7.2655315 -0.80343014 54.799999
2.5050569 3.399754 -1.0690061 9.5333338
2.2203665 3.9218559 -1.1628972 8
2.1836376 4.0041986 -1.0884427 14.258928
1.8577657 4.8946533 -0.93145758 5.3333335
2.0720625 3.7848549 -1.0103744 1.6
1.9918108 3.8938954 -1.1232584 4.5
1.546247 4.4361038 -1.1494409 3.8
1.4862123 4.6727867 -1.0759243 4.0999999
1.269074 4.9864893 -1.1346731 6
0.31672525 7.4079714 -1.0886579 61.5
1.2677298 4.7174439 -1.2217923 1
1.1782565 4.8748732 -1.1408076 7.666667
6.9141359 -10.408769 -1.0421754 70.75
1.6334977 2.6497726 -0.97139853 33.200001
1.4250555 2.8173835 -1.0103253 23.625
0.80792189 4.6031256 -1.07348 9
6.6132221 -10.586744 -1.0568309 69.666664
5.9433131 -8.4753103 -0.90175128 31
5.7325211 -8.399169 -0.89836597 78
0.37657118 4.1227527 -0.88230878 19.444445
6.2408319 -10.620274 -1.0615388 61.200001
5.3988919 -8.3892403 -0.90196031 73
0.84280252 2.2584362 -1.1137416 1.909091
0.70917034 2.4389882 -1.2473335 5
0.20698261 3.9783711 -0.89844131 20
5.8529472 -10.812532 -1.0793033 24
5.0656261 -8.8898363 -0.94459528 75
4.8599772 -8.648283 -0.93011165 49
4.7054434 -8.4603901 -0.9189899 49
0.012235641 3.2750249 -1.0235732 3.5999999
-0.31588459 3.6328659 -1.0820138 7.6333332
-0.9876647 5.5909996 -1.1131021 7
4.5690098 -8.3097477 -0.91057736 72.166664
4.3219481 -8.0085506 -0.89374948 79.333336
4.0528984 -7.6756182 -0.87590355 96.222221
3.8555501 -7.2969847 -0.85368747 80.333336
-0.60898352 3.1505575 -0.97826457 20
-0.52945423 3.376832 -1.1059189 19.169643
-1.630558 5.5221581 -1.1866027 15.333333
3.7475431 -7.3152637 -0.85805106 60.5
3.248986 -6.6594944 -0.82705009 51.5
3.0601892 -6.3737421 -0.81381315 8.6000004
2.6785107 -4.9417448 -1.0442357 34.666668
-0.67185736 3.110651 -1.1203011 14
-0.71092987 3.122381 -1.2605031 16
-1.6956816 5.3867846 -1.188049 14.4
2.6149206 -5.9514551 -1.146668 72
2.4835806 -5.8006163 -1.1394196 75.888885
2.218823 -5.4458752 -0.95329982 75.5
2.0338564 -5.2532625 -1.1148534 100
1.8626337 -3.9634197 -1.0098854 50
-2.5024281 6.4188805 -0.98310435 18
1.8559399 -5.0477161 -0.94324756 80.75
1.6414795 -4.779521 -0.93566358 96.318176
1.4553776 -4.5282135 -0.92807138 93.75
1.3480077 -4.0199394 -1.0548499 69.181816
1.1031857 -3.7080791 -1.0492866 61.583332
0.88242531 -3.4671471 -1.0490876 42.75
0.65846395 -3.3287585 -1.0584242 30.888889
0.3785367 -3.1960967 -1.0742828 18.799999
-1.6371393 1.5606002 -1.1010695 5
-1.9058533 2.98733 -1.1387798 7
-2.3882847 3.6176524 -1.2133052 4
0.22441959 -3.0658619 -1.0794332 20
0.058878899 -2.8648832 -1.0816067 18.071428
-0.21817017 -2.5342042 -1.0875223 10.214286
-0.48724794 -2.23261 -1.0968503 4.4545455
-2.6132908 2.9003589 -1.2265788 20
-0.76988745 -1.9013894 -1.1082784 28.642857
-1.0294585 -1.5802004 -1.1201472 55.833332
-1.295537 -1.2659104 -1.1352918 96.545456
-1.4853554 -1.0009091 -1.1455768 55.5
-2.9439297 3.1423705 -1.0974396 18.5
-1.5718565 -0.93472838 -0.99012631 74.583328
-1.8247786 -0.62486839 -1.1708111 65.5
-2.0977249 -0.30870032 -1.1927919 40.416668
-2.2972622 -0.079982042 -1.2100935 17.6
-3.5696697 3.4882252 -0.98658997 5
-2.4418087 0.07424593 -1.223599 6.3333335
-3.2158794 1.0048946 -0.94025505 5.6666665
-3.3000479 1.0991597 -0.94733691 9
-3.3801908 1.2133243 -0.95410281 13
-3.6298981 1.5247109 -0.97600037 20
-3.9711351 1.9567232 -1.0075244 34.875
-4.1240454 2.1339331 -1.0220776 40.5
-4.1680117 2.8571775 -1.0319737 58.5
-4.5123539 3.1914876 -1.0672016 76
-4.5899954 3.2537746 -1.075076 84
-4.8466558 3.4856908 -1.1016983 2
10.492287 1.1502837 -0.63990635 42.069443
10.231865 1.4460649 -0.58888382 48.901443
9.9872341 1.7585469 -0.59810233 57.66111
9.8508406 1.9227619 -0.62531841 62.666668
9.7680855 2.0183148 -0.66041505 68.074997
9.0501842 2.3431013 -0.54318744 74.542107
8.861804 2.5684171 -0.49293929 82.445946
8.636795 2.8387315 -0.47386354 75.547623
8.6569576 3.3841276 -0.50502008 7.5
8.359005 3.7715483 -0.48210144 1.5095239
8.2195206 3.9243495 -0.47636157 34.171051
8.553607 2.9414864 -0.48655963 48.599998
8.0039196 4.1512423 -0.479617 100
7.8336034 4.3480725 -0.49666452 100
7.5288053 4.7213907 -0.51404649 99.097984
7.3274169 4.9594703 -0.5582695 96.51226
7.1900134 5.1200547 -0.59101623 93.907143
6.9917564 5.326529 -0.59076077 72.020508
6.7717247 5.6242847 -0.60858947 76.099709
6.4717813 5.9805427 -0.62851882 65.433876
6.3506074 6.1217422 -0.66023046 60.25
6.5141649 5.2313881 -0.71045291 10.74468
6.3059077 5.2411547 -0.72343397 22
6.2271476 6.2601275 -0.68860084 60.472569
5.8884888 6.5842943 -0.69484824 65.083336
5.7457318 6.7661533 -0.87687707 24.666666
5.5695095 6.4963923 -0.6974293 52.172852
5.3160009 6.6839218 -0.59265602 29.222221
5.2025461 7.2784557 -0.50602692 56.923077
4.9923115 7.4160757 -0.52617216 41.5
5.2974267 6.4500575 -0.70427716 8.5
5.181756 6.5721421 -0.65808678 18.73077
4.8010988 7.1527138 -0.84818655 53.333332
4.6462259 7.1930122 -0.77857924 6.8333335
4.4194479 8.2963219 -0.62877518 38.857143
4.1982002 8.4460144 -0.65121543 30.333334
3.9883225 8.6791334 -0.68094021 20
4.9507322 5.3987775 -0.69098395 38.166668
3.7629464 8.597394 -0.6834532 4.4705882
4.0584154 6.4280734 -0.7253229 65.5
4.0587645 6.4450684 -0.80847746 85
3.6009812 8.4683294 -0.67943484 4
2.9405365 9.3183336 -0.78487176 27.625
2.9419241 9.7474413 -0.54364836 22
4.0376024 6.4237018 -0.72645974 12
3.7375631 6.5068913 -0.76462275 29.605263
2.6696119 9.1440954 -0.78359848 20.571428
4.2165432 4.7635245 -0.70138335 20
4.2227783 4.7831879 -0.70281732 22.166666
3.3871579 6.1297326 -0.67133349 61.444443
3.49734 6.2749443 -0.76178968 31.995295
3.2362068 6.8943062 -0.56908989 1
2.2747817 8.6186209 -0.76179123 100
2.4584579 8.975338 -0.7805869 20.200001
3.2155662 5.8935356 -0.6694569 53.254627
3.2565491 6.1096401 -0.85488129 32.599998
2.2129159 8.5723848 -0.76169127 80.400002
3.1426935 4.6695013 -0.7977795 26.060606
3.0925109 4.7780266 -0.7404955 9.666667
2.8592083 5.7390184 -0.7762717 15.596591
2.8128195 6.1864061 -0.54599518 46
2.9791698 4.5633974 -0.73997903 28.272728
2.9452078 4.7174983 -0.68015236 27.5
2.5701828 5.5201826 -0.79054701 23.204544
1.4831791 7.5207767 -0.72991759 2
1.3897815 7.8419437 -0.7587834 27.375
1.517704 8.0025187 -0.76166266 40.5
7.2845917 -7.3276901 -0.45103812 41
7.1327758 -6.9210901 -0.43464541 11
2.1527934 5.1419239 -0.72015727 17.4
2.3056149 5.284122 -0.71247429 20.333334
1.5953445 6.2445936 -0.63967657 13.428572
1.6735129 6.3220806 -0.63832718 9
1.1152258 7.6267099 -0.76295859 5.8000002
7.124764 -7.2917585 -0.44980073 26.25
7.0825443 -7.0063305 -0.43821096 1
2.3578615 3.4412656 -0.69542778 7.833333
2.2435203 3.7157674 -0.63801867 12.416667
2.1842637 4.0127592 -0.65617883 19.023809
1.8815527 4.9072123 -0.73689413 19.736841
1.475338 6.1206603 -0.64177269 14.875
0.4312315 8.3553104 -0.86030889 2
0.41430187 8.4089003 -0.86516482 2
2.1726551 3.6295371 -0.81239033 2
1.4310875 4.7285995 -0.78014296 5.4285712
0.89447784 6.067668 -0.68476707 2
0.59436607 6.413228 -0.72734356 14.666667
0.44241285 7.303895 -0.6510089 33.966667
1.8291559 2.6323609 -0.57686776 53.166668
1.2147522 4.7849135 -0.59799206 2
1.1750612 4.886385 -0.7124936 12.666666
0.45418644 5.7383709 -0.70410639 2
0.59933853 6.3532248 -0.72367066 2
6.9314437 -10.392462 -0.57676715 55
1.6440449 2.6870966 -0.59774405 35.833336
1.4376535 2.8683701 -0.62139177 45.055557
0.7679801 4.5013294 -0.73689556 13.528572
0.77994108 4.6788459 -0.74323636 10.45
0.29648972 5.6124592 -0.71145022 12.384615
6.6332436 -10.566363 -0.58491021 56.333332
5.9514556 -8.4811668 -0.50367278 40
5.7077117 -8.4021826 -0.50239533 90.444443
0.50585938 4.1910791 -0.75391018 29.200001
6.2727647 -10.602008 -0.58802187 52.799999
5.3931575 -8.3909807 -0.50480765 91.714287
0.87423038 2.2256408 -0.6792357 4.5
0.6951189 2.4259343 -0.80748892 2
0.070559025 3.8603015 -0.66931504 19.75
0.19619608 3.9607997 -0.66060394 3
5.9868016 -11.189128 -0.61361068 51.25
5.0603523 -8.8874969 -0.52828318 90.5
4.8512421 -8.6464081 -0.52103943 83.25
4.700695 -8.4633627 -0.51558673 85
-0.24731922 3.5934317 -0.69148004 5.5
-1.0430784 5.8643198 -0.83551949 9.25
-2.2319536 8.9394636 -0.70811456 1
5.8606739 -11.288 -0.6184563 38
4.570302 -8.3051605 -0.5110296 77
4.3264141 -8.0118876 -0.50291151 76.285713
4.0477333 -7.6715021 -0.49394858 86.111115
3.8447824 -7.4237204 -0.48779368 98.800003
-1.436203 5.6248941 -0.85929745 24
3.7147181 -7.2751236 -0.48442835 97.75
3.5221798 -7.042614 -0.47925341 94.400002
3.2563543 -6.7233992 -0.47269046 86.800003
3.0266092 -6.4402046 -0.46727699 69.125
2.6911197 -4.9389677 -0.73172933 43
2.3583965 -4.4462128 -0.71563601 2
-0.92281961 3.4230638 -0.74697691 9
-0.90742159 3.5152984 -0.74988043 11
-2.0117188 5.5026703 -0.57943767 65
-2.0649996 5.6023049 -0.58494157 84
2.882549 -6.2847815 -0.46495235 58.333332
2.7149768 -6.0751905 -0.4615081 47.272728
2.4430614 -5.7467203 -0.45694286 41.083332
2.1685467 -5.4168119 -0.45323104 52.416668
1.8187356 -3.892925 -0.7102887 69.5
1.4918375 -3.6160586 -0.71316284 68.699997
-2.0081654 4.8097124 -0.56209487 1
-2.1156054 5.3810258 -0.58180535 75.599998
-2.2316055 5.7581329 -0.59803987 1
-8.9142828 20.726383 -0.70768601 4
1.9011555 -5.0978689 -0.45054811 72.166664
1.6397915 -4.790452 -0.44890833 75.75
1.4269819 -4.4914932 -0.60626948 76.333336
1.3504276 -4.024354 -0.43540579 44.75
1.0906572 -3.6615074 -0.586362 42.962502
0.87486172 -3.4684474 -0.59029436 41.1875
-2.4396772 4.3719425 -0.57626212 3.5
0.6799407 -3.3319685 -0.59517419 29.1
0.37949181 -3.1745822 -0.60439771 12.166667
0.2068429 -2.8728139 -0.75822425 6.6666665
-0.0015730858 -2.2436545 -0.44626737 1
-0.1470561 -1.4228122 -0.72632778 100
-1.7098274 1.6279677 -0.65181226 9.75
-1.8953323 2.9988616 -0.5211249 11
-2.3540611 3.6079712 -0.55575019 27.333334
-2.6444035 4.2513485 -0.58512908 2.5
0.22413015 -3.0717432 -0.45425946 8
0.054498672 -2.787173 -0.60917187 3.8571429
-0.12765789 -2.6276152 -0.61517894 2.375
-0.53384066 -2.1991317 -0.62685931 1.6
-0.58507347 -2.1589329 -0.62895042 3.8333333
-0.68939972 -2.0204208 -0.47394776 8.25
-1.0491447 -1.5622156 -0.48418599 41.307693
-1.3038397 -1.2507255 -0.49268752 58.25
-1.4504223 -1.0760946 -0.497917 55.5
-2.9906702 3.1025543 -0.58284676 17
-1.5799732 -0.9212966 -0.50279796 55.200001
-1.8475399 -0.60259581 -0.51350081 44.18182
-2.1046362 -0.29744649 -0.5246107 28.583334
-2.2939415 -0.082784414 -0.53329402 16.25
-3.5698709 3.5143423 -0.62028658 27.5
-2.4325809 0.077715635 -0.53991234 9.2857141
-2.5409813 0.2097559 -0.54517651 4
-3.6319828 1.5139681 -0.60508388 5
-4.0102959 1.980608 -0.62848997 18.714285
-4.119174 2.1243596 -0.63550168 22
-4.5850239 3.2622077 -0.67285275 54.5
-4.7658949 3.4374483 -0.6851573 4.6666665
-5.000473 3.6662385 -0.70132238 2
-5.3366022 4.0062747 -0.72922707 2
-5.3913155 4.0520487 -0.73299587 2
10.456026 1.2139318 -0.21591094 3.8333333
10.213143 1.4923651 -0.19997987 19.415674
9.9627256 1.793317 -0.24281485 61.27002
9.8479414 1.9287616 -0.23540013 67.291664
9.7769718 2.0085275 -0.22982763 66.253471
9.0576286 2.342674 -0.22129394 72.940956
8.8251381 2.6206193 -0.23570211 82.973457
8.617506 2.8722863 -0.24747419 75.789566
8.6914101 3.3487005 -0.23598672 2.9282408
8.3132305 3.826591 -0.25822115 0.67606777
8.1662474 3.9686506 -0.25687909 57.557182
8.5463505 2.9576311 -0.22586185 62.141666
8.0313711 4.1245465 -0.26026195 100
7.8603611 4.330924 -0.26973131 99.982071
7.5794897 4.6730142 -0.26145309 98.836647
7.3256602 4.9729843 -0.24932012 94.898056
7.1880865 5.1378298 -0.26354688 89.472855
7.0507121 5.299654 -0.27836263 82.757774
6.7691817 5.6351337 -0.26348919 70.259514
6.5024452 5.9532957 -0.29153663 65.732712
6.3448639 6.151762 -0.19241466 61.625
6.2000132 6.3108115 -0.26246601 66.125008
5.9513636 6.5994029 -0.28456637 56.431232
5.6889911 6.9165154 -0.30860037 53.869049
5.5077777 7.1431122 -0.24676427 48.041664
5.5128784 7.031867 -0.47283733 48.5
5.3965139 7.2298374 -0.33112335 38.877777
5.1523156 7.5591984 -0.2706266 40.166664
4.8689003 7.8856621 -0.28940344 31.345238
4.6731195 8.1242514 -0.30315322 35.666664
4.4979525 8.3357716 -0.31518996 33.5
4.3203526 8.4875488 -0.32494885 26.049999
4.0770388 8.7372026 -0.33899868 20.4
3.7758105 9.1878595 -0.36627388 25.625
4.9503455 5.4003673 -0.29414457 67.520828
3.6629915 9.3149328 -0.49863273 19
3.3801932 9.5230618 -0.3870849 63.598488
4.7272058 5.211442 -0.18103616 94.065788
4.0779886 6.4298706 -0.32340968 114.5
2.845139 9.7108469 -0.26653534 22.4
4.4400887 4.957943 -0.236038 53.628571
4.0413647 6.4264975 -0.32487828 18
2.4833922 9.6057243 -0.26818109 1
4.2388077 4.7744408 -0.29407263 65.833336
4.2232552 4.7890291 -0.23812062 66.833336
2.2479086 9.3769627 -0.2652567 11.222222
0.78707457 12.655813 -0.36952794 1
3.3479195 5.8133101 -0.16133851 78
1.8061228 8.8898478 -0.25894451 1
3.0573616 4.7143474 -0.29120898 5
3.2012925 5.0588102 -0.14746085 8
1.6223731 8.7472086 -0.25807071 1
1.0164542 9.5455513 -0.28662729 1
-0.50065851 13.696652 -0.41302788 1
2.9846928 4.7085414 -0.29466331 7
-0.23236513 11.50667 -0.35339314 2
8.3012505 -9.2885675 -0.10473351 1
7.3324938 -7.2961006 -0.094692022 58.400002
7.1271076 -6.847167 -0.092552327 36.5
7.1213331 -7.3041029 -0.095261134 32.25
7.0796299 -6.996417 -0.09355554 6
2.3801975 3.4280026 -0.29329371 28.133333
2.2341108 3.9261866 -0.31163841 20.5
2.1894641 4.007412 -0.23204975 31.571426
0.67105865 7.7105141 -0.24872136 97.428574
0.31786442 7.4228716 -0.24843909 100
0.50408936 7.5800447 -0.24864723 74
-0.96854925 10.901398 -0.349343 3
8.5514965 -13.116581 -0.12656599 1.6666666
8.3337193 -12.845016 -0.12528518 1.5
1.7377954 2.7121787 -0.22800305 53.5
1.1552906 4.9167624 -0.28943533 28.725
0.050543308 7.4182777 -0.25301522 1
8.0591059 -12.508169 -0.12376074 3
7.8246031 -12.218481 -0.12249853 2.3333333
6.9262533 -10.410618 -0.11408874 59.666668
1.7273445 2.5952353 -0.22719666 34.125
1.5346999 2.8817136 -0.23733233 38.928574
-0.57487679 7.0886059 -0.25739068 3
6.6535578 -10.580694 -0.11596447 64
5.9473791 -8.4782219 -0.10636708 50.333332
5.7028904 -8.4003906 -0.10706329 92
-0.55999613 6.9450912 -0.2542361 1
6.2934322 -10.594325 -0.11733045 64.333336
5.3877354 -8.3923063 -0.10862292 78.428574
0.86836529 2.2429407 -0.2558797 8.416666
5.9817095 -11.190896 -0.12207 56.25
5.0547404 -8.8870811 -0.11329196 73.75
4.846405 -8.6415596 -0.1131396 70.625
-0.34867191 3.6576595 -0.32092828 33.666668
-0.55812645 4.4495735 -0.47515726 20
5.8546872 -11.27523 -0.1231007 31
4.5826654 -8.3199387 -0.11301296 73.25
4.3119788 -8.0002594 -0.11310686 78.444443
4.0460916 -7.67869 -0.11332756 89
3.853404 -7.4423742 -0.11358335 99
3.7103009 -7.2692919 -0.11385661 100
3.5055153 -7.017642 -0.11433095 100
3.2408266 -6.6995707 -0.11516457 91.545456
3.011188 -6.4165497 -0.11602563 68.85714
-2.013937 5.5044708 -0.25581563 93.666664
-2.0574331 5.6580472 -0.25923884 53
-3.3262901 9.0622282 -0.34759283 3
2.8787336 -6.2797289 -0.11672011 50.666668
2.7066345 -6.080061 -0.11762458 61.18182
2.4379091 -5.7444029 -0.11913437 72.416664
2.1726575 -5.4314337 -0.12096022 91
-2.1652565 5.3506966 -0.2563042 100
2.038681 -5.2736444 -0.12197676 100
1.8941922 -5.0989256 -0.12316044 100
1.625124 -4.77281 -0.12557325 100
1.3951488 -4.4936094 -0.12787187 100
1.3365397 -4.0125637 -0.12760289 90.181816
1.0808969 -3.7199237 -0.13074189 78.214287
0.88486719 -3.4830849 -0.13331875 68.666664
-3.7541943 7.7363968 -0.32928312 1
0.66160202 -3.3391387 -0.13659152 46
0.36363125 -3.2502048 -0.14118703 37.714287
-2.372982 3.6355476 -0.23538671 69
-2.9679861 4.9563322 -0.26619425 1
0.23199511 -3.0981281 -0.14324647 33.166668
0.038047314 -2.8592131 -0.14644435 21.142857
-0.23558331 -2.5250213 -0.15125099 9.1428576
-0.48517179 -2.2298448 -0.15593247 3.3636363
-3.3071375 4.5746546 -0.26738656 1
-3.2030687 4.7888989 -0.26842672 1
-0.61753273 -2.0753744 -0.15852249 8.5
-0.77084541 -1.8985755 -0.16164045 21.307692
-1.0439177 -1.5700686 -0.16746996 49.214287
-1.3073807 -1.2456214 -0.17340668 71.083336
-1.4576731 -1.0540667 -0.17685953 74.666664
-2.989563 3.1098921 -0.23846224 69.5
-1.5933504 -0.88856316 -0.18003233 74.300003
-1.8427725 -0.6037991 -0.18596883 44.299999
-2.1115608 -0.29259348 -0.19264057 24.416666
-2.311533 -0.063058138 -0.19775505 14
-2.4418554 0.090250492 -0.20119208 5.5
-3.1900597 0.98932111 -0.22217138 3.5
-8.0206594 12.388332 -0.50083077 2
-3.290247 1.0977191 -0.22502962 7
-3.4125805 1.2581159 -0.22878762 10
-3.8475475 1.7764736 -0.24208339 4
-3.8631868 1.8126615 -0.24273399 16
-4.546031 3.2096274 -0.27111873 88
-4.6039457 3.2714653 -0.27300745 62
-6.2901812 7.3412132 -0.37114006 1
-8.1242914 12.344703 -0.50176281 2
-4.1153622 2.0945275 -0.2505129 16
-4.1557293 2.1283832 -0.25165969 45
-4.7533121 3.4179924 -0.2777496 6.5999999
-4.9635859 3.6637008 -0.28495103 1
-5.3113604 4.0319014 -0.30074793 1
-6.3142996 7.2699862 -0.37039059 1
-5.4191017 4.1497803 -0.30452067 1
-6.5349417 4.9043055 -0.33770341 1
-6.6663961 5.0211701 -0.3420437 1
-10.424792 9.9143076 -0.49704677 2
-10.448268 9.6786366 -0.49324125 2
-10.532044 9.852087 -0.49798423 2
-12.712516 12.607193 -0.59106678 3
10.117037 1.6142111 0.17111143 47.5
9.9425488 1.8246616 0.21174808 34.961159
9.8442898 1.9393117 0.20254485 47.75
9.7838774 2.0115919 0.1962852 50.90625
9.0534811 2.3481905 0.17437974 71.276665
8.8202429 2.6272614 0.18050745 86.001198
8.6132936 2.8825953 0.18485183 81.230728
8.6638441 3.3195512 0.18978512 3.0659871
8.3132248 3.8274589 0.1722873 1.450511
8.1652908 3.9685407 0.16672695 67.117615
8.5245771 2.9893119 0.22158639 51.041454
8.0312834 4.1234312 0.16563876 100
7.8421454 4.3567238 0.13898809 99.924095
7.5779333 4.6745529 0.15120013 98.338348
7.3264394 4.9760666 0.13122976 94.936996
7.1874714 5.1407161 0.14092296 91.300003
7.0487185 5.3067775 0.1509086 83.615784
6.7716756 5.6375351 0.12618449 69.897102
6.5078917 5.9522161 0.14475203 66.647408
6.3465776 6.1446095 0.098605096 64.666664
6.2178855 6.2952023 0.1055011 65.521431
5.9537654 6.6051607 0.12008137 59.4641
5.6914058 6.9222784 0.1352928 51.48148
5.5101886 7.1363516 0.14554188 46.5
5.3755007 7.2937431 0.071410857 45.875
5.1608829 7.5498486 0.07872095 42.952381
4.896615 7.8661356 0.087754667 38.202381
4.6728168 8.1287718 0.095367447 37.25
4.4773703 8.3633776 0.20702557 33
4.3401871 8.5238628 0.10730867 32.666664
4.0469198 8.8720961 0.11704473 30.1
3.8211403 9.1412859 0.12542818 27.666668
4.9707699 5.4051924 0.15034585 102.5
3.6907368 9.2960691 0.12999985 29.5
3.3766654 9.5169468 0.13846104 75.977272
4.7003489 5.1721745 0.15192111 106.79167
4.6908369 5.6356034 -0.013505246 1
4.4642692 5.844902 0.056788594 1
4.082509 6.4204721 0.23020472 48.75
2.8998384 9.7273312 0.010540038 24.444445
4.5887041 5.0628471 0.31945544 123.4
4.0527301 5.5784254 0.12843457 1
4.1445427 5.6745615 0.12789482 1.0476191
4.2428641 4.7818775 0.1606911 85.083328
4.2281313 4.7942595 0.16170929 74
3.7369063 5.3568687 0.13489093 21.5
3.9144368 5.5775709 0.13325195 1
2.2428169 9.347559 0.013512723 14.5
0.81701851 12.644483 0.032723024 4.5
3.5060654 5.123044 0.13931851 36.759998
3.3561335 5.8034954 0.078649327 66.5
1.7397637 8.8428516 0.016254619 6
1.8198018 9.0914373 0.016069598 2
3.2197571 4.7845616 0.14601351 17
3.2151191 4.9762621 0.074625023 17.107143
1.5907378 8.8246279 0.017471947 2
-0.28993368 13.003721 0.041036889 2
-0.48037004 13.751645 0.044434935 2
2.976464 4.6782441 0.15541694 5
3.0098634 4.71136 0.15429944 8
-0.22938538 11.503003 0.037079349 91
7.3326526 -7.2825813 0.2597999 42.25
7.1274247 -6.8312254 0.24593501 45
7.1457644 -7.2823763 0.25909901 32.400002
2.3877006 3.4193966 0.18024841 67.227776
2.2819276 3.9532208 0.019156225 24
2.210072 4.0391545 0.019518465 18.6
0.68370438 7.7192936 0.025717199 95.14286
-1.3694286 12.310834 0.047834367 36.5
0.33342838 7.4132586 0.029894829 90.285713
1.7136955 2.7854295 0.040024705 65.5
1.1550221 4.9103155 0.13425626 45.275002
0.033359528 7.430829 0.033259302 2
7.7714949 -12.214968 0.40461856 3
6.926568 -10.381217 0.3483035 34
1.6441917 2.675849 0.13383837 12.125
1.5187263 2.8442082 0.13735823 10.375
-0.55132484 7.0764065 0.040983878 9.5
6.6638227 -10.560845 0.35273594 39
5.9366503 -8.437851 0.28948796 43
5.7045465 -8.3848438 0.28761798 84.900002
-0.533463 6.8803434 0.041369461 2
-0.60625362 7.1595879 0.041405722 2
6.2915988 -10.57808 0.35226673 40
5.3898153 -8.3740225 0.28696442 72.666664
0.90743828 2.1817293 0.16377141 11.083334
5.9840746 -11.148638 0.36814582 38.599998
5.0620308 -8.8358097 0.30008233 62.599998
4.8475266 -8.632966 0.29418826 49.42857
4.7141228 -8.4673071 0.28942716 18
-0.34532976 3.6577985 0.18521333 32.083332
4.5662875 -8.296423 0.28457302 40.125
4.2988348 -7.9703522 0.2754246 79.333336
4.0494699 -7.6407909 0.26632404 77.625
3.8561049 -7.4284964 0.260607 99.400002
3.713078 -7.2584753 0.25607693 100
3.5075188 -7.0096521 0.24954893 99.699997
3.2442429 -6.6869087 0.24125136 94.199997
2.9983745 -6.3994303 0.23408715 76.777779
-2.0003328 5.5076237 0.067231439 84.199997
-2.0361052 5.653079 0.066779122 61.5
-3.3184443 9.0590019 0.068703488 2
2.8568835 -6.2393637 0.23019557 56.5
2.7005458 -6.0498867 0.22564472 48.454544
2.4414887 -5.7343807 0.21823882 42.545456
2.1693935 -5.4014711 0.21069436 68.555557
2.0341058 -5.2467861 0.20732822 94
-2.1266031 5.3589106 0.069960803 75.333336
1.899621 -5.0862799 0.20389549 99.272728
1.6445365 -4.7703753 0.19727592 98.769234
1.409771 -4.4716272 0.19122158 98.199997
1.3287148 -3.9906981 0.17963761 66.454544
1.0901451 -3.7065971 0.17450802 34.153847
0.87196875 -3.4511807 0.17014836 22.333334
-1.8699446 2.9917712 0.090304211 40
-3.6945124 7.7108374 0.0778668 2
0.63147354 -3.332166 0.16947681 18.857143
0.3489151 -3.1980526 0.16898997 10.909091
-2.163866 3.1541195 0.092899695 48
-2.3436041 3.4944079 0.092098683 2
0.21293306 -3.0298836 0.16640009 6
0.051599026 -2.8449028 0.16380052 3.0769231
-0.2515521 -2.5504501 0.16038956 2
-0.51251841 -2.1678212 0.15493955 4.7142859
-2.5285139 2.5123405 0.10532011 20
-3.3059502 4.714366 0.091337651 32
-4.9459486 9.1810646 0.087999344 2
-0.49905634 -2.3509762 0.15872529 2
-0.77045774 -1.8773205 0.1517974 38.307693
-1.0286818 -1.5589941 0.148377 56.076923
-1.2987528 -1.2382057 0.14540616 79.53846
-1.4696035 -1.039571 0.14385906 93.333336
-1.5923424 -0.88565326 0.1426547 89.444443
-1.8253679 -0.60094857 0.14068934 69.07692
-2.1115046 -0.27259541 0.13894287 32.333332
-2.2821007 -0.068847179 0.13790849 17.666666
-2.4013577 0.04902935 0.13765657 9.3999996
-3.5020056 1.3746517 0.13382179 5
-3.7221031 1.6629826 0.13322218 8.25
-3.9781237 1.9752727 0.13298951 19.777779
-4.1280136 2.1520474 0.13300838 22
-4.5251951 3.2115788 0.12689348 48
-4.5811663 3.2732098 0.12707202 57
-4.2372646 2.2916865 0.13293941 26.833334
-4.7843752 3.4524498 0.12821934 15.25
-5.0292625 3.6791048 0.12954907 2
-5.3044014 4.0140843 0.12754777 2
-5.3853197 4.0638013 0.1268456 2
-6.1878796 5.5064373 0.12530039 2
-6.2689323 5.7126932 0.12479173 2
-6.5430298 4.9324274 0.13518482 2
-6.5813904 5.010385 0.13503747 2
9.8461351 2.0013113 0.47572744 1
9.7552767 2.0421462 0.56908977 2.4444444
9.0561724 2.3492591 0.49865836 69.063492
8.8612194 2.582792 0.43992585 82.31794
8.6370239 2.8547139 0.41334581 85.645233
8.6318216 3.346369 0.42298478 4.697011
8.3302097 3.7991574 0.39383835 1.0817308
8.1634159 3.9716697 0.41470218 56.365852
8.5312309 2.9830954 0.41742963 56
8.0087109 4.1575408 0.38484418 100
7.8416519 4.3637309 0.39826691 100
7.5310488 4.7325377 0.40313852 96.426048
7.3259802 4.9792271 0.44204068 92.799934
7.1877222 5.1379781 0.46959102 88.984131
7.0134678 5.3514934 0.46513337 81.184708
6.7688293 5.6455212 0.52403706 72.862656
6.4995885 5.964736 0.5309577 66.6381
6.3442383 6.1501045 0.51165581 64.541672
6.2315054 6.2852688 0.53514385 60.183334
5.9633856 6.604044 0.52732903 57.24408
5.7258997 6.8880253 0.57489306 53.888885
5.5084958 7.1444025 0.54097289 51.875
5.3690171 7.3115759 0.48403192 50.888885
5.1718283 7.5461998 0.51502001 48.674999
4.8918009 7.8796129 0.46603787 43.571426
4.674489 8.1351938 0.49580878 38.5
4.4792652 8.3687744 0.628865 39
4.3416195 8.531105 0.54250556 34.833336
4.1193576 8.7935724 0.57162291 32.799999
3.8221788 9.1480503 0.49227995 28.333334
4.9735618 5.3945055 0.54205167 79.674599
3.6898417 9.3084097 0.50768185 27
3.3729072 9.5207253 0.53338987 57
4.7119389 5.1701021 0.54352885 89.95295
4.0767746 6.434062 0.55001837 90.666672
2.8944433 9.7163658 0.42593181 10.1375
2.6496153 9.7949333 0.57990706 1
4.3270507 4.8280587 0.67232066 79.571426
4.5300913 5.022543 0.55002677 74.983871
4.0154276 6.4196796 0.63458127 120.75
2.6706557 9.6750078 0.29117125 1
4.2668219 4.7782283 0.55985105 61.177776
3.8713195 5.2250566 0.66683823 1
2.2409554 9.2996616 0.42901683 7.5
0.79160929 12.657665 0.43553102 2
3.3609521 5.8119855 0.48077595 71.333336
8.3295031 -9.2530708 0.74824613 2
7.3460426 -7.2831478 0.61504728 55.599998
7.1229997 -6.8275709 0.58476233 48
7.1422033 -7.2827559 0.61399543 45.400002
2.3835144 3.4132564 0.57724082 11.6875
0.70797873 7.7519751 0.43793392 51.216667
0.34493303 7.4327402 0.58672911 62.833332
1.165226 4.8984318 0.55786318 9.666667
0.075224876 7.41364 0.6046111 1
7.9612322 -12.351719 0.94288135 3
7.8473935 -12.240827 0.9350366 3
6.9212008 -10.395686 0.81236941 53.5
6.6425471 -10.588696 0.82396197 57.875
5.9870801 -8.497221 0.6896891 16
5.7188358 -8.3859596 0.68302721 70.888885
-0.55527353 6.9726639 0.63474417 1
6.2713451 -10.593079 0.8236661 45.75
5.4044366 -8.3739986 0.68317211 68.285713
0.92384958 2.2179561 0.58137417 4.6999998
5.9591894 -11.192934 0.86192679 35
5.0712204 -8.876359 0.71646917 58.75
4.8614988 -8.6377373 0.70248973 64.5
4.693718 -8.434535 0.69069797 64.5
-0.34019852 3.6514311 0.56583005 9
4.5483932 -8.2605066 0.68078965 61.714287
4.3115358 -7.9750967 0.66482633 67.625
4.056931 -7.6630611 0.64780205 84
3.8543599 -7.4153833 0.63463771 97
3.7245319 -7.2632389 0.6267935 99.25
3.5325284 -7.0303612 0.61499721 95.599998
3.254586 -6.6945181 0.59855807 69.63636
3.0087156 -6.4049482 0.58506024 50
-2.0149183 5.4918604 0.3909511 81.800003
-2.0300398 5.6581059 0.39227891 14.5
2.876899 -6.2651405 0.57898027 45
2.7231011 -6.0688934 0.57018358 45.090908
2.4555144 -5.7313995 0.55569172 51.333332
2.189364 -5.4210148 0.54354322 83.63636
2.0406208 -5.2271185 0.53592181 87
-2.2154198 5.2882276 0.39992154 85.400002
-2.2076635 5.781992 0.40113246 1
1.9092488 -5.0836782 0.5310443 89.25
1.6443496 -4.7600689 0.51987624 88.07692
1.3895702 -4.4582443 0.67066705 79.1875
1.3452249 -4.0059214 0.6424281 66.230774
1.0771494 -3.6970155 0.63354301 49.3022
0.88018703 -3.4626601 0.62740588 34.964287
-2.4454889 5.1099539 0.41063249 78.25
0.68382072 -3.3197997 0.62758666 26.388889
0.34978104 -3.2063138 0.6364944 16.799999
-1.4733276 1.5398902 0.39704758 1
0.21408892 -3.0375779 0.63313204 12.875
0.049832344 -2.8350313 0.62976688 9
-0.2160964 -2.515662 0.62591797 2.5
-0.47410345 -2.2283795 0.6244719 1.375
-3.3942776 4.5808821 0.45700651 2
-3.3557005 4.6936326 0.4548443 5.3333335
-0.5985918 -2.1241491 0.62560612 4
-0.76522017 -1.8726118 0.62276983 13.682693
-1.0455365 -1.5340188 0.62300307 30.908333
-1.2833309 -1.2552679 0.6243943 48.209404
-1.4810648 -1.0115042 0.46487617 53.75
-1.5987587 -0.86784625 0.46548295 38.5
-1.8311701 -0.59624267 0.46758455 25
-2.1198511 -0.26812148 0.47132021 11.083333
-3.0573311 0.83043742 0.48875564 2
-3.1425467 0.95513117 0.49027836 4.8571429
-3.2708931 1.1111923 0.49335009 9.333333
-3.437809 1.3170608 0.49756205 13.142858
-3.6961975 1.6370957 0.50455612 20
-3.9870663 1.9823763 0.51331997 39.444443
-4.1297922 2.1583767 0.51775986 54
-4.1871881 2.8079839 0.51232201 40.25
-4.4354239 3.0996182 0.52154946 88.25
-4.6105251 3.3230119 0.52811766 65.666664
-4.1620932 2.1949062 0.51883858 18
-4.7880125 3.4896591 0.53549445 2
-4.989954 3.6851676 0.54398251 2
-5.2799044 3.9772849 0.55217546 2
-5.4088182 4.1389074 0.55744535 2
-6.1752605 5.5128946 0.58985382 2
-6.2455587 5.7176151 0.59308922 2
-6.4632616 4.8589883 0.60544807 2
9.7709713 2.0290861 0.79520673 5.6666665
6.4843097 5.9888535 0.76918077 70.684212
6.3365102 6.1666565 0.81898087 68.666664
6.1857796 6.3433976 0.80400145 62.166664
5.9590354 6.6151533 0.87869924 58.285713
5.6795611 6.945365 0.89288741 52.165405
5.5163441 7.1399956 0.94404876 50.611111
5.3722 7.3130598 0.90407044 44.916664
5.1328192 7.5964346 0.8813293 46.305557
4.8991661 7.8708467 0.84736443 45
4.6804066 8.1309824 0.90045536 43.75
4.4861364 8.3652897 1.0560379 45
4.386364 8.4819908 0.97186482 36.75
4.0517426 8.8789921 0.8177197 32.049999
3.8280969 9.144702 0.86139607 29.5
3.6993337 9.2967606 0.88636494 29.5
3.3829443 9.5236473 0.93138099 73.844696
9.2162638 -5.735568 1.1662785 2
9.3289785 -5.6250544 1.1560445 1
2.8890722 9.7252398 0.84495825 14.916667
9.0723743 -5.8608017 1.1776972 3.1111112
8.6011581 -6.2460403 1.0499095 1.5
2.2395535 9.334384 0.8502388 1
8.2451 -6.5388088 1.0766412 15
8.4131365 -6.3982582 1.0637569 7.5999999
8.0692873 -6.6702757 1.0888503 25.109091
7.8135896 -6.8769865 1.1082816 38.200001
7.4260421 -7.2073727 0.96496177 54.200001
7.0649395 -7.510417 0.99264538 65
7.2215061 -7.3872423 0.9812814 67.5
2.3770776 3.4303503 0.90344298 7.6923075
2.2500858 3.6177974 0.93358606 1.4155843
0.6799016 7.7211504 0.85307139 91.533333
6.7754564 -7.7571878 1.0160767 46.333332
2.2253008 3.2657044 0.93388474 4.0999999
2.0979376 3.7979529 1.0572346 1
1.5974927 4.4100628 0.99466932 1
1.3671622 4.6975307 0.94459808 1.5
0.35701275 7.426569 0.86563963 90.599998
8.5123692 -13.041533 0.99115181 3
8.3274269 -12.832529 0.97630024 3
6.4564457 -8.0262842 1.0423839 45.714287
1.2603703 4.7718358 0.86057121 3
1.1044426 4.8455844 0.88645887 7.8571429
0.081212044 7.4153948 0.89202404 1
8.2015095 -12.65692 0.96411061 3
8.0837126 -12.546494 0.95618927 3
6.072423 -8.3496809 1.0749863 49
6.2150745 -8.2291136 1.0627006 47
1.5066028 2.6493506 0.99184322 2
1.1384311 3.2422957 1.0572252 1
5.8147631 -8.5649881 1.0973105 49.666668
1.1721029 2.3949862 0.95710117 1.1
0.90777445 3.5366316 1.1008552 1
-0.58685398 6.9278688 0.93468511 1
5.4873481 -8.836338 1.1260355 49.400002
0.85435152 2.3127973 0.90774697 2.5
0.078410625 4.0090866 1.0181271 1.4
5.1502457 -8.9405603 1.1390972 51.75
4.8579407 -8.6312666 1.1118687 51.625
4.7050109 -8.4604807 1.0970666 53
0.23992014 3.035728 0.99152708 1
0.08406353 3.263689 1.0148224 1.5384616
-0.19399261 3.5549245 0.92901772 1.9404762
4.5753837 -8.2973232 1.0829754 50
4.3225946 -7.9916325 1.0572457 59
4.052886 -7.6610909 1.0302191 76.333336
3.8493752 -7.4121952 1.0104812 80
3.7073951 -7.2421036 0.9974072 80.599998
3.5003934 -6.997426 0.97920823 80.199997
3.2373285 -6.6759644 0.9559738 57.700001
3.004493 -6.4016619 0.9372654 39.875
-2.0088634 5.5190334 0.87846011 74.599998
-2.0454588 5.6544743 0.8846283 17
2.86327 -6.2421465 0.92696589 36.333332
2.6515226 -5.9815254 1.0827516 45.090912
2.4410577 -5.7236691 1.0651425 52.420456
2.1731334 -5.400281 1.0439246 73.458328
2.0328217 -5.2162752 1.1984489 92
-2.211668 5.3045397 0.89474207 81.536362
1.9007492 -5.0739794 1.0243968 84.962128
1.6385369 -4.7569418 1.0072291 87.875
1.4246068 -4.499383 0.99436247 85.111115
1.3362432 -3.9793246 1.1059819 79.5
1.0835247 -3.6885693 1.0945237 56.23077
0.88488388 -3.4561036 1.0864837 46
-2.4420853 5.1180124 0.91464746 78.75
0.67711878 -3.3141234 1.0894976 35.888889
0.34883261 -3.1951311 1.1059648 22.9
0.21389961 -3.0258644 1.1018114 16
0.047330856 -2.8251317 1.0984602 12.153846
-0.22002411 -2.5069439 1.0952718 3.2857144
-0.49968195 -2.1959198 1.0962267 1.1538461
-3.3087978 4.6453781 0.81459624 1
-3.3365145 4.7205448 0.81718588 1
-4.9859304 9.1666546 1.027678 2
-0.74775982 -1.877949 1.0958339 16.307692
-1.0007114 -1.5659683 1.0985874 38
-1.3517838 -1.1630313 0.94609916 54.397728
-1.4737177 -1.0153041 0.94925547 51.916664
-1.599227 -0.86221576 0.9526403 45.986111
-1.8280354 -0.59310532 0.96023154 29.115385
-2.1108456 -0.27189565 0.97186172 14.416666
-2.3087702 -0.042129755 0.98078716 5.3999996
-2.3972807 0.044834137 0.98571682 3
-3.1880293 1.0067486 0.84976172 2
-3.2798252 1.1170651 0.85449612 4.6666665
-3.4403181 1.3214312 0.86286318 11.777778
-3.6079197 1.5421052 0.87180614 13
-4.024704 2.0242538 0.89737076 34.799999
-4.2286367 2.4860432 0.90726405 44
-4.1510057 2.7532451 0.89726692 56.25
-4.4218321 3.0869777 0.91667402 72.666664
-4.6083107 3.3094764 0.93053991 80
-4.2434797 2.2940526 0.91137946 51.5
